ply
format ascii 1.0
element vertex 120
property float x
property float y
property float z
end_header
1.0 0.0 0.0
0.9986295347545738 0.052335956242943835 0.01
0.9945218953682733 0.10452846326765347 0.02
0.9876883405951378 0.15643446504023087 0.03
0.9781476007338057 0.20791169081775934 0.04
0.9659258262890683 0.25881904510252074 0.05
0.9510565162951535 0.3090169943749474 0.06
0.9335804264972017 0.35836794954530027 0.07
0.9135454576426009 0.4067366430758002 0.08
0.8910065241883679 0.45399049973954675 0.09
0.8660254037844387 0.49999999999999994 0.1
0.838670567945424 0.5446390350150271 0.11
0.8090169943749475 0.5877852522924731 0.12
0.7771459614569709 0.6293203910498374 0.13
0.7431448254773942 0.6691306063588582 0.14
0.7071067811865476 0.7071067811865476 0.15
0.6691306063588582 0.7431448254773942 0.16
0.6293203910498375 0.7771459614569709 0.17
0.5877852522924731 0.8090169943749475 0.18
0.5446390350150271 0.838670567945424 0.19
0.5000000000000001 0.8660254037844386 0.2
0.4539904997395468 0.8910065241883678 0.21
0.4067366430758002 0.9135454576426009 0.22
0.3583679495453004 0.9335804264972017 0.23
0.30901699437494745 0.9510565162951535 0.24
0.25881904510252074 0.9659258262890683 0.25
0.20791169081775945 0.9781476007338056 0.26
0.15643446504023092 0.9876883405951378 0.27
0.10452846326765346 0.9945218953682733 0.28
0.052335956242943966 0.9986295347545738 0.29
6.123233995736766e-17 1.0 0.3
-0.05233595624294384 0.9986295347545738 0.31
-0.10452846326765355 0.9945218953682733 0.32
-0.1564344650402308 0.9876883405951378 0.33
-0.20791169081775934 0.9781476007338057 0.34
-0.25881904510252085 0.9659258262890683 0.35000000000000003
-0.30901699437494734 0.9510565162951536 0.36
-0.35836794954530027 0.9335804264972017 0.37
-0.40673664307580026 0.9135454576426009 0.38
-0.45399049973954675 0.8910065241883679 0.39
-0.4999999999999998 0.8660254037844387 0.4
-0.5446390350150271 0.838670567945424 0.41000000000000003
-0.587785252292473 0.8090169943749475 0.42
-0.6293203910498373 0.777145961456971 0.43
-0.6691306063588582 0.7431448254773942 0.44
-0.7071067811865475 0.7071067811865476 0.45
-0.7431448254773941 0.6691306063588583 0.46
-0.7771459614569709 0.6293203910498374 0.47000000000000003
-0.8090169943749473 0.5877852522924732 0.48
-0.8386705679454239 0.5446390350150273 0.49
-0.8660254037844387 0.49999999999999994 0.5
-0.8910065241883678 0.45399049973954686 0.51
-0.9135454576426008 0.40673664307580043 0.52
-0.9335804264972017 0.3583679495453002 0.53
-0.9510565162951535 0.3090169943749475 0.54
-0.9659258262890682 0.258819045102521 0.55
-0.9781476007338057 0.20791169081775931 0.56
-0.9876883405951377 0.15643446504023098 0.5700000000000001
-0.9945218953682733 0.10452846326765373 0.58
-0.9986295347545738 0.05233595624294381 0.59
-1.0 1.2246467991473532e-16 0.6
-0.9986295347545738 -0.052335956242943564 0.61
-0.9945218953682733 -0.1045284632676535 0.62
-0.9876883405951378 -0.15643446504023073 0.63
-0.9781476007338056 -0.2079116908177595 0.64
-0.9659258262890683 -0.2588190451025208 0.65
-0.9510565162951536 -0.3090169943749473 0.66
-0.9335804264972017 -0.35836794954530043 0.67
-0.9135454576426009 -0.4067366430758002 0.68
-0.8910065241883679 -0.45399049973954664 0.6900000000000001
-0.8660254037844386 -0.5000000000000001 0.7000000000000001
-0.838670567945424 -0.5446390350150271 0.71
-0.8090169943749475 -0.587785252292473 0.72
-0.7771459614569708 -0.6293203910498376 0.73
-0.7431448254773942 -0.6691306063588582 0.74
-0.7071067811865477 -0.7071067811865475 0.75
-0.6691306063588581 -0.7431448254773944 0.76
-0.6293203910498378 -0.7771459614569706 0.77
-0.5877852522924732 -0.8090169943749473 0.78
-0.544639035015027 -0.8386705679454242 0.79
-0.5000000000000004 -0.8660254037844385 0.8
-0.4539904997395469 -0.8910065241883678 0.81
-0.4067366430758001 -0.913545457642601 0.8200000000000001
-0.3583679495453007 -0.9335804264972016 0.8300000000000001
-0.30901699437494756 -0.9510565162951535 0.84
-0.25881904510252063 -0.9659258262890683 0.85
-0.2079116908177598 -0.9781476007338056 0.86
-0.15643446504023104 -0.9876883405951377 0.87
-0.10452846326765336 -0.9945218953682734 0.88
-0.052335956242944306 -0.9986295347545738 0.89
-1.8369701987210297e-16 -1.0 0.9
0.052335956242943946 -0.9986295347545738 0.91
0.10452846326765299 -0.9945218953682734 0.92
0.15643446504023067 -0.9876883405951378 0.93
0.20791169081775943 -0.9781476007338056 0.9400000000000001
0.2588190451025203 -0.9659258262890684 0.9500000000000001
0.30901699437494723 -0.9510565162951536 0.96
0.3583679495453004 -0.9335804264972017 0.97
0.40673664307579976 -0.9135454576426011 0.98
0.45399049973954664 -0.891006524188368 0.99
0.5000000000000001 -0.8660254037844386 1.0
0.5446390350150266 -0.8386705679454243 1.01
0.5877852522924729 -0.8090169943749476 1.02
0.6293203910498375 -0.7771459614569708 1.03
0.6691306063588578 -0.7431448254773946 1.04
0.7071067811865474 -0.7071067811865477 1.05
0.7431448254773942 -0.6691306063588581 1.06
0.7771459614569706 -0.6293203910498378 1.07
0.8090169943749473 -0.5877852522924734 1.08
0.838670567945424 -0.544639035015027 1.09
0.8660254037844384 -0.5000000000000004 1.1
0.8910065241883678 -0.45399049973954697 1.11
0.913545457642601 -0.40673664307580015 1.12
0.9335804264972015 -0.35836794954530077 1.1300000000000001
0.9510565162951535 -0.3090169943749477 1.1400000000000001
0.9659258262890683 -0.2588190451025207 1.1500000000000001
0.9781476007338056 -0.20791169081775987 1.16
0.9876883405951377 -0.1564344650402311 1.17
0.9945218953682733 -0.10452846326765342 1.18
0.9986295347545738 -0.05233595624294437 1.19
